#Level 1 Data
# PI: P. Goloub (mailto: philippe.goloub@univ-lille1.fr)
#Time    Z(km)     Ln(Pr2) 
11.7514 14.2832 13.6173
11.7514 14.2876 13.8519
11.7514 14.292 14.2492
11.7514 14.2964 13.8056
11.7514 14.3008 14.9425
11.7514 14.3052 13.9846
11.7514 14.3096 14.025
11.7514 14.314 14.8964
11.7514 14.3184 13.4289
11.7514 14.3229 14.5826
11.7514 14.3273 13.465
11.7514 14.3317 11.5136
11.7514 14.3361 14.009
11.7514 14.3405 14.5273
11.7514 14.3449 11.7312
11.7514 14.3493 13.5969
11.7514 14.3537 -999
11.7514 14.3581 14.289
11.7514 14.3625 13.399
11.7514 14.3669 14.836
11.7514 14.3713 13.1016
11.7514 14.3758 12.416
11.7514 14.3802 14.0918
11.7514 14.3846 10.8585
11.7514 14.389 14.0164
11.7514 14.3934 11.738
11.7514 14.3978 14.1482
11.7514 14.4022 14.3959
11.7514 14.4066 13.9358
11.7514 14.411 14.3115
11.7514 14.4154 14.3699
11.7514 14.4198 13.7206
11.7514 14.4242 -999
11.7514 14.4287 13.7218
11.7514 14.4331 8.14616
11.7514 14.4375 14.5643
11.7514 14.4419 14.5532
11.7514 14.4463 14.7456
11.7514 14.4507 14.6863
11.7514 14.4551 14.1562
11.7514 14.4595 14.7377
11.7514 14.4639 14.0464
11.7514 14.4683 13.9443
11.7514 14.4727 -999
11.7514 14.4771 14.4464
11.7514 14.4816 13.9017
11.7514 14.486 14.4343
11.7514 14.4904 14.617
11.7514 14.4948 13.7835
11.7514 14.4992 14.7626
11.7514 14.5036 12.9586
11.7514 14.508 13.9498
11.7514 14.5124 12.8362
11.7514 14.5168 14.2487
11.7514 14.5212 14.0543
11.7514 14.5256 14.5765
11.7514 14.5301 13.1724
11.7514 14.5345 14.4673
11.7514 14.5389 13.8392
11.7514 14.5433 14.8948
11.7514 14.5477 14.5441
11.7514 14.5521 14.3602
11.7514 14.5565 13.4259
11.7514 14.5609 13.9127
11.7514 14.5653 14.5465
11.7514 14.5697 14.4459
11.7514 14.5741 14.899
11.7514 14.5785 12.909
11.7514 14.583 14.0823
11.7514 14.5874 -999
11.7514 14.5918 14.488
11.7514 14.5962 14.2755
11.7514 14.6006 13.7981
11.7514 14.605 13.8959
11.7514 14.6094 14.1049
11.7514 14.6138 12.8501
11.7514 14.6182 14.4788
11.7514 14.6226 12.7093
11.7514 14.627 13.1369
11.7514 14.6314 12.6317
11.7514 14.6359 -999
11.7514 14.6403 13.3995
11.7514 14.6447 14.0908
11.7514 14.6491 14.6163
11.7514 14.6535 14.3297
11.7514 14.6579 14.3892
11.7514 14.6623 13.9709
11.7514 14.6667 14.3164
11.7514 14.6711 14.1503
11.7514 14.6755 14.1864
11.7514 14.6799 11.9567
11.7514 14.6843 13.9519
11.7514 14.6888 14.3497
11.7514 14.6932 13.9531
11.7514 14.6976 13.614
11.7514 14.702 14.8464
11.7514 14.7064 14.5037
11.7514 14.7108 14.5296
11.7514 14.7152 14.9598
11.7514 14.7196 14.9357
11.7514 14.724 14.0624
11.7514 14.7284 12.3611
11.7514 14.7328 13.79
11.7514 14.7372 14.6283
11.7514 14.7417 14.5085
11.7514 14.7461 -999
11.7514 14.7505 13.7659
11.7514 14.7549 14.1058
11.7514 14.7593 14.573
11.7514 14.7637 14.9983
11.7514 14.7681 14.8997
11.7514 14.7725 14.2341
11.7514 14.7769 14.6781
11.7514 14.7813 14.434
11.7514 14.7857 13.4932
11.7514 14.7901 13.6266
11.7514 14.7946 13.0554
11.7514 14.799 13.3418
11.7514 14.8034 13.4217
11.7514 14.8078 14.1868
11.7514 14.8122 13.9004
11.7514 14.8166 -999
11.7514 14.821 13.9925
11.7514 14.8254 13.4246
11.7514 14.8298 14.7173
11.7514 14.8342 12.6592
11.7514 14.8386 13.664
11.7514 14.843 11.9788
11.7514 14.8475 -999
11.7514 14.8519 14.6438
11.7514 14.8563 13.2629
11.7514 14.8607 12.4824
11.7514 14.8651 -999
11.7514 14.8695 13.7548
11.7514 14.8739 13.2192
11.7514 14.8783 14.7948
11.7514 14.8827 14.4051
11.7514 14.8871 14.5409
11.7514 14.8915 13.3116
11.7514 14.8959 14.6268
11.7514 14.9004 13.8883
11.7514 14.9048 13.8644
11.7514 14.9092 13.7601
11.7514 14.9136 13.8901
11.7514 14.918 13.5458
11.7514 14.9224 14.7505
11.7514 14.9268 -999
11.7514 14.9312 13.6764
11.7514 14.9356 -999
11.7514 14.94 -999
11.7514 14.9444 -999
11.7514 14.9488 14.1879
11.7514 14.9533 -999
11.7514 14.9577 12.8277
11.7514 14.9621 14.703
11.7514 14.9665 14.075
11.7514 14.9709 13.3222
11.7514 14.9753 13.8487
11.7514 14.9797 14.0351
11.7514 14.9841 13.6211
11.7514 14.9885 14.3598
11.7514 14.9929 13.9935
11.7514 14.9973 13.0827
11.7931 0 -999
11.7931 0.00440839 -1.0023
11.7931 0.00881678 0.129845
11.7931 0.0132252 0.908019
11.7931 0.0176336 1.9259
11.7931 0.0220419 -999
11.7931 0.0264503 -999
11.7931 0.0308587 6.93651
11.7931 0.0352671 9.27173
11.7931 0.0396755 7.50196
11.7931 0.0440839 7.03822
11.7931 0.0484923 7.91873
11.7931 0.0529007 8.01439
11.7931 0.0573091 8.36995
11.7931 0.0617175 8.51592
11.7931 0.0661258 8.7496
11.7931 0.0705342 8.91231
11.7931 0.0749426 9.15158
11.7931 0.079351 9.51277
11.7931 0.0837594 9.97282
11.7931 0.0881678 10.4946
11.7931 0.0925762 11.0318
11.7931 0.0969846 11.5183
11.7931 0.101393 11.9581
11.7931 0.105801 12.3417
11.7931 0.11021 12.6748
11.7931 0.114618 12.9645
11.7931 0.119027 13.2129
11.7931 0.123435 13.4379
11.7931 0.127843 13.6367
11.7931 0.132252 13.8169
11.7931 0.13666 13.9748
11.7931 0.141068 14.1066
11.7931 0.145477 14.235
11.7931 0.149885 14.3504
11.7931 0.154294 14.4587
11.7931 0.158702 14.5536
11.7931 0.16311 14.6434
11.7931 0.167519 14.7273
11.7931 0.171927 14.807
11.7931 0.176336 14.8792
11.7931 0.180744 14.9453
11.7931 0.185152 15.0095
11.7931 0.189561 15.0712
11.7931 0.193969 15.1234
11.7931 0.198378 15.1754
11.7931 0.202786 15.2268
11.7931 0.207194 15.2746
11.7931 0.211603 15.3188
11.7931 0.216011 15.3636
11.7931 0.220419 15.4058
11.7931 0.224828 15.4472
11.7931 0.229236 15.4827
11.7931 0.233645 15.5179
11.7931 0.238053 15.5536
11.7931 0.242461 15.5859
11.7931 0.24687 15.6158
11.7931 0.251278 15.6479
11.7931 0.255687 15.675
11.7931 0.260095 15.7045
11.7931 0.264503 15.726
11.7931 0.268912 15.7483
11.7931 0.27332 15.771
11.7931 0.277729 15.7923
11.7931 0.282137 15.8088
11.7931 0.286545 15.8258
11.7931 0.290954 15.8388
11.7931 0.295362 15.8538
11.7931 0.29977 15.8683
11.7931 0.304179 15.8778
11.7931 0.308587 15.886
11.7931 0.312996 15.8948
11.7931 0.317404 15.9022
11.7931 0.321812 15.9059
11.7931 0.326221 15.9156
11.7931 0.330629 15.9191
11.7931 0.335038 15.9244
11.7931 0.339446 15.9264
11.7931 0.343854 15.9309
11.7931 0.348263 15.9356
11.7931 0.352671 15.9371
11.7931 0.35708 15.9372
11.7931 0.361488 15.9362
11.7931 0.365896 15.9366
11.7931 0.370305 15.9359
11.7931 0.374713 15.9395
11.7931 0.379121 15.9431
11.7931 0.38353 15.9423
11.7931 0.387938 15.9448
11.7931 0.392347 15.943
11.7931 0.396755 15.9454
11.7931 0.401163 15.9428
11.7931 0.405572 15.9414
11.7931 0.40998 15.9408
11.7931 0.414389 15.9439
11.7931 0.418797 15.9388
11.7931 0.423205 15.9393
11.7931 0.427614 15.9385
11.7931 0.432022 15.9325
11.7931 0.436431 15.9347
11.7931 0.440839 15.9345
11.7931 0.445247 15.9288
11.7931 0.449656 15.9273
11.7931 0.454064 15.9272
11.7931 0.458472 15.924
11.7931 0.462881 15.9188
11.7931 0.467289 15.9171
11.7931 0.471698 15.9186
11.7931 0.476106 15.9155
11.7931 0.480514 15.9142
11.7931 0.484923 15.9101
11.7931 0.489331 15.9092
11.7931 0.49374 15.9101
11.7931 0.498148 15.9068
11.7931 0.502556 15.9016
11.7931 0.506965 15.901
11.7931 0.511373 15.8981
11.7931 0.515782 15.8998
11.7931 0.52019 15.8979
11.7931 0.524598 15.8915
11.7931 0.529007 15.8925
11.7931 0.533415 15.8894
11.7931 0.537823 15.89
11.7931 0.542232 15.8899
11.7931 0.54664 15.8817
11.7931 0.551049 15.8829
11.7931 0.555457 15.8809
11.7931 0.559865 15.8823
11.7931 0.564274 15.8743
11.7931 0.568682 15.8739
11.7931 0.573091 15.8757
11.7931 0.577499 15.8706
11.7931 0.581907 15.8734
11.7931 0.586316 15.8716
11.7931 0.590724 15.8718
11.7931 0.595133 15.8689
11.7931 0.599541 15.8686
11.7931 0.603949 15.8642
11.7931 0.608358 15.8605
11.7931 0.612766 15.856
11.7931 0.617175 15.8569
11.7931 0.621583 15.8597
11.7931 0.625991 15.8535
11.7931 0.6304 15.8515
11.7931 0.634808 15.8484
11.7931 0.639216 15.8457
11.7931 0.643625 15.8398
11.7931 0.648033 15.843
11.7931 0.652442 15.8471
11.7931 0.65685 15.8381
11.7931 0.661258 15.8344
11.7931 0.665667 15.8368
11.7931 0.670075 15.8332
11.7931 0.674484 15.8315
11.7931 0.678892 15.8251
11.7931 0.6833 15.8199
11.7931 0.687709 15.821
11.7931 0.692117 15.8252
11.7931 0.696526 15.8225
11.7931 0.700934 15.8223
11.7931 0.705342 15.8209
11.7931 0.709751 15.8121
11.7931 0.714159 15.8093
11.7931 0.718567 15.8125
11.7931 0.722976 15.8171
11.7931 0.727384 15.8116
11.7931 0.731793 15.8097
11.7931 0.736201 15.8079
11.7931 0.740609 15.8072
11.7931 0.745018 15.8054
11.7931 0.749426 15.7984
11.7931 0.753835 15.8007
11.7931 0.758243 15.8021
11.7931 0.762651 15.7954
11.7931 0.76706 15.7952
11.7931 0.771468 15.7947
11.7931 0.775877 15.7891
11.7931 0.780285 15.7935
11.7931 0.784693 15.7953
11.7931 0.789102 15.7952
11.7931 0.79351 15.794
11.7931 0.797918 15.7874
11.7931 0.802327 15.7907
11.7931 0.806735 15.7873
11.7931 0.811144 15.7867
11.7931 0.815552 15.784
11.7931 0.81996 15.778
11.7931 0.824369 15.7823
11.7931 0.828777 15.787
11.7931 0.833186 15.7846
11.7931 0.837594 15.7808
11.7931 0.842002 15.7795
11.7931 0.846411 15.776
11.7931 0.850819 15.772
11.7931 0.855228 15.7733
11.7931 0.859636 15.7739
11.7931 0.864044 15.7763
11.7931 0.868453 15.7688
11.7931 0.872861 15.7673
11.7931 0.877269 15.7711
11.7931 0.881678 15.763
11.7931 0.886086 15.7707
11.7931 0.890495 15.764
11.7931 0.894903 15.7658
11.7931 0.899311 15.7633
11.7931 0.90372 15.7592
11.7931 0.908128 15.7667
11.7931 0.912537 15.7584
11.7931 0.916945 15.7567
11.7931 0.921353 15.7599
11.7931 0.925762 15.7545
11.7931 0.93017 15.7552
11.7931 0.934579 15.7615
11.7931 0.938987 15.7557
11.7931 0.943395 15.7554
11.7931 0.947804 15.7548
11.7931 0.952212 15.7566
11.7931 0.95662 15.7495
11.7931 0.961029 15.7563
11.7931 0.965437 15.7561
11.7931 0.969846 15.7557
11.7931 0.974254 15.7559
11.7931 0.978662 15.7553
11.7931 0.983071 15.7532
11.7931 0.987479 15.7529
11.7931 0.991888 15.7502
11.7931 0.996296 15.7473
11.7931 1.0007 15.7479
11.7931 1.00511 15.7524
11.7931 1.00952 15.7556
11.7931 1.01393 15.7695
11.7931 1.01834 15.7622
11.7931 1.02275 15.767
11.7931 1.02715 15.7673
11.7931 1.03156 15.7553
11.7931 1.03597 15.7537
11.7931 1.04038 15.7553
11.7931 1.04479 15.7542
11.7931 1.0492 15.7576
11.7931 1.05361 15.747
11.7931 1.05801 15.7513
11.7931 1.06242 15.7484
11.7931 1.06683 15.7429
11.7931 1.07124 15.7414
11.7931 1.07565 15.743
11.7931 1.08006 15.7347
11.7931 1.08446 15.7406
11.7931 1.08887 15.7511
11.7931 1.09328 15.7501
11.7931 1.09769 15.7423
11.7931 1.1021 15.7406
11.7931 1.10651 15.7455
11.7931 1.11091 15.7466
11.7931 1.11532 15.7522
11.7931 1.11973 15.7421
11.7931 1.12414 15.7555
11.7931 1.12855 15.7492
11.7931 1.13296 15.7492
11.7931 1.13736 15.7519
11.7931 1.14177 15.7484
11.7931 1.14618 15.7514
11.7931 1.15059 15.7536
11.7931 1.155 15.7501
11.7931 1.15941 15.7512
11.7931 1.16381 15.7502
11.7931 1.16822 15.7563
11.7931 1.17263 15.7547
11.7931 1.17704 15.7491
11.7931 1.18145 15.7497
11.7931 1.18586 15.7396
11.7931 1.19027 15.7374
11.7931 1.19467 15.745
11.7931 1.19908 15.7328
11.7931 1.20349 15.7366
11.7931 1.2079 15.7338
11.7931 1.21231 15.7414
11.7931 1.21672 15.7375
11.7931 1.22112 15.7356
11.7931 1.22553 15.7309
11.7931 1.22994 15.7414
11.7931 1.23435 15.7327
11.7931 1.23876 15.7383
11.7931 1.24317 15.7248
11.7931 1.24757 15.7242
11.7931 1.25198 15.7293
11.7931 1.25639 15.7306
11.7931 1.2608 15.7242
11.7931 1.26521 15.7327
11.7931 1.26962 15.7375
11.7931 1.27402 15.7287
11.7931 1.27843 15.7318
11.7931 1.28284 15.7314
11.7931 1.28725 15.7415
11.7931 1.29166 15.7392
11.7931 1.29607 15.741
11.7931 1.30047 15.7385
11.7931 1.30488 15.7239
11.7931 1.30929 15.7398
11.7931 1.3137 15.7344
11.7931 1.31811 15.7348
11.7931 1.32252 15.7375
11.7931 1.32693 15.7313
11.7931 1.33133 15.7316
11.7931 1.33574 15.7234
11.7931 1.34015 15.717
11.7931 1.34456 15.7073
11.7931 1.34897 15.7156
11.7931 1.35338 15.7235
11.7931 1.35778 15.7128
11.7931 1.36219 15.7161
11.7931 1.3666 15.7147
11.7931 1.37101 15.7176
11.7931 1.37542 15.7151
11.7931 1.37983 15.7113
11.7931 1.38423 15.7019
11.7931 1.38864 15.7169
11.7931 1.39305 15.7247
11.7931 1.39746 15.7166
11.7931 1.40187 15.7169
11.7931 1.40628 15.7263
11.7931 1.41068 15.726
11.7931 1.41509 15.7267
11.7931 1.4195 15.7123
11.7931 1.42391 15.7122
11.7931 1.42832 15.7121
11.7931 1.43273 15.7041
11.7931 1.43713 15.7094
11.7931 1.44154 15.7115
11.7931 1.44595 15.7186
11.7931 1.45036 15.7256
11.7931 1.45477 15.7071
11.7931 1.45918 15.7186
11.7931 1.46359 15.7198
11.7931 1.46799 15.713
11.7931 1.4724 15.7156
11.7931 1.47681 15.7172
11.7931 1.48122 15.7031
11.7931 1.48563 15.7082
11.7931 1.49004 15.7138
11.7931 1.49444 15.7242
11.7931 1.49885 15.7072
11.7931 1.50326 15.7233
11.7931 1.50767 15.7224
11.7931 1.51208 15.7097
11.7931 1.51649 15.7235
11.7931 1.52089 15.7276
11.7931 1.5253 15.7119
11.7931 1.52971 15.7283
11.7931 1.53412 15.7201
11.7931 1.53853 15.7281
11.7931 1.54294 15.7385
11.7931 1.54734 15.7231
11.7931 1.55175 15.723
11.7931 1.55616 15.7262
11.7931 1.56057 15.7239
11.7931 1.56498 15.724
11.7931 1.56939 15.7267
11.7931 1.5738 15.7243
11.7931 1.5782 15.7225
11.7931 1.58261 15.7273
11.7931 1.58702 15.7273
11.7931 1.59143 15.7306
11.7931 1.59584 15.7364
11.7931 1.60025 15.7329
11.7931 1.60465 15.7382
11.7931 1.60906 15.7357
11.7931 1.61347 15.741
11.7931 1.61788 15.7538
11.7931 1.62229 15.7435
11.7931 1.6267 15.7345
11.7931 1.6311 15.748
11.7931 1.63551 15.742
11.7931 1.63992 15.743
11.7931 1.64433 15.7399
11.7931 1.64874 15.7485
11.7931 1.65315 15.7493
11.7931 1.65755 15.7489
11.7931 1.66196 15.7435
11.7931 1.66637 15.7415
11.7931 1.67078 15.742
11.7931 1.67519 15.7388
11.7931 1.6796 15.7411
11.7931 1.684 15.7283
11.7931 1.68841 15.7347
11.7931 1.69282 15.7334
11.7931 1.69723 15.737
11.7931 1.70164 15.7179
11.7931 1.70605 15.7278
11.7931 1.71046 15.725
11.7931 1.71486 15.6949
11.7931 1.71927 15.6855
11.7931 1.72368 15.6935
11.7931 1.72809 15.6832
11.7931 1.7325 15.667
11.7931 1.73691 15.6882
11.7931 1.74131 15.6774
11.7931 1.74572 15.677
11.7931 1.75013 15.666
11.7931 1.75454 15.6701
11.7931 1.75895 15.6656
11.7931 1.76336 15.6542
11.7931 1.76776 15.6293
11.7931 1.77217 15.633
11.7931 1.77658 15.6316
11.7931 1.78099 15.6179
11.7931 1.7854 15.6222
11.7931 1.78981 15.6145
11.7931 1.79421 15.6029
11.7931 1.79862 15.5891
11.7931 1.80303 15.5779
11.7931 1.80744 15.5604
11.7931 1.81185 15.5212
11.7931 1.81626 15.4944
11.7931 1.82066 15.4784
11.7931 1.82507 15.4526
11.7931 1.82948 15.4259
11.7931 1.83389 15.3916
11.7931 1.8383 15.3408
11.7931 1.84271 15.3239
11.7931 1.84712 15.3113
11.7931 1.85152 15.2998
11.7931 1.85593 15.2807
11.7931 1.86034 15.2652
11.7931 1.86475 15.2574
11.7931 1.86916 15.2499
11.7931 1.87357 15.2307
11.7931 1.87797 15.2067
11.7931 1.88238 15.2027
11.7931 1.88679 15.1588
11.7931 1.8912 15.1538
11.7931 1.89561 15.1619
11.7931 1.90002 15.1588
11.7931 1.90442 15.1515
11.7931 1.90883 15.1391
11.7931 1.91324 15.1376
11.7931 1.91765 15.1472
11.7931 1.92206 15.1408
11.7931 1.92647 15.1358
11.7931 1.93087 15.1549
11.7931 1.93528 15.1496
11.7931 1.93969 15.1533
11.7931 1.9441 15.151
11.7931 1.94851 15.1425
11.7931 1.95292 15.1532
11.7931 1.95732 15.1631
11.7931 1.96173 15.1648
11.7931 1.96614 15.1763
11.7931 1.97055 15.1911
11.7931 1.97496 15.189
11.7931 1.97937 15.1813
11.7931 1.98378 15.1472
11.7931 1.98818 15.1768
11.7931 1.99259 15.1652
11.7931 1.997 15.1653
11.7931 2.00141 15.1622
11.7931 2.00582 15.158
11.7931 2.01023 15.1745
11.7931 2.01463 15.1624
11.7931 2.01904 15.1779
11.7931 2.02345 15.191
11.7931 2.02786 15.1867
11.7931 2.03227 15.1648
11.7931 2.03668 15.1758
11.7931 2.04108 15.18
11.7931 2.04549 15.1838
11.7931 2.0499 15.1636
11.7931 2.05431 15.1864
11.7931 2.05872 15.1667
11.7931 2.06313 15.1874
11.7931 2.06753 15.1881
11.7931 2.07194 15.1753
11.7931 2.07635 15.1753
11.7931 2.08076 15.1777
11.7931 2.08517 15.1813
11.7931 2.08958 15.1876
11.7931 2.09398 15.1909
11.7931 2.09839 15.1834
11.7931 2.1028 15.1877
11.7931 2.10721 15.1596
11.7931 2.11162 15.1698
11.7931 2.11603 15.1681
11.7931 2.12044 15.1654
11.7931 2.12484 15.1694
11.7931 2.12925 15.1554
11.7931 2.13366 15.1614
11.7931 2.13807 15.1543
11.7931 2.14248 15.1677
11.7931 2.14689 15.1669
11.7931 2.15129 15.137
11.7931 2.1557 15.1395
11.7931 2.16011 15.1522
11.7931 2.16452 15.1432
11.7931 2.16893 15.1406
11.7931 2.17334 15.1322
11.7931 2.17774 15.1305
11.7931 2.18215 15.1283
11.7931 2.18656 15.1329
11.7931 2.19097 15.1159
11.7931 2.19538 15.1022
11.7931 2.19979 15.1047
11.7931 2.20419 15.0963
11.7931 2.2086 15.0609
11.7931 2.21301 15.0844
11.7931 2.21742 15.0847
11.7931 2.22183 15.0729
11.7931 2.22624 15.1059
11.7931 2.23064 15.1009
11.7931 2.23505 15.0691
11.7931 2.23946 15.0661
11.7931 2.24387 15.0663
11.7931 2.24828 15.0605
11.7931 2.25269 15.0651
11.7931 2.2571 15.0446
11.7931 2.2615 15.0489
11.7931 2.26591 15.0597
11.7931 2.27032 14.9987
11.7931 2.27473 15.0201
11.7931 2.27914 15.0485
11.7931 2.28355 15.0322
11.7931 2.28795 15.0578
11.7931 2.29236 15.0581
11.7931 2.29677 15.0639
11.7931 2.30118 15.0523
11.7931 2.30559 15.0583
11.7931 2.31 15.0832
11.7931 2.3144 15.0794
11.7931 2.31881 15.0595
11.7931 2.32322 15.0566
11.7931 2.32763 15.0706
11.7931 2.33204 15.1013
11.7931 2.33645 15.074
11.7931 2.34085 15.0777
11.7931 2.34526 15.0662
11.7931 2.34967 15.0563
11.7931 2.35408 15.0531
11.7931 2.35849 15.0659
11.7931 2.3629 15.0595
11.7931 2.36731 15.062
11.7931 2.37171 15.041
11.7931 2.37612 15.0613
11.7931 2.38053 15.0406
11.7931 2.38494 15.0689
11.7931 2.38935 15.0529
11.7931 2.39376 15.042
11.7931 2.39816 15.0435
11.7931 2.40257 15.0472
11.7931 2.40698 15.0264
11.7931 2.41139 15.0579
11.7931 2.4158 15.0325
11.7931 2.42021 15.0622
11.7931 2.42461 15.0275
11.7931 2.42902 15.0189
11.7931 2.43343 15.0658
11.7931 2.43784 15.0573
11.7931 2.44225 15.0565
11.7931 2.44666 15.0394
11.7931 2.45106 15.0518
11.7931 2.45547 15.0569
11.7931 2.45988 15.0283
11.7931 2.46429 15.0079
11.7931 2.4687 15.0544
11.7931 2.47311 15.0405
11.7931 2.47751 15.0409
11.7931 2.48192 15.0479
11.7931 2.48633 15.0814
11.7931 2.49074 15.0579
11.7931 2.49515 15.056
11.7931 2.49956 15.0546
11.7931 2.50397 15.0267
11.7931 2.50837 15.0384
11.7931 2.51278 15.0456
11.7931 2.51719 15.0258
11.7931 2.5216 15.0766
11.7931 2.52601 15.0476
11.7931 2.53042 15.0425
11.7931 2.53482 15.033
11.7931 2.53923 15.0454
11.7931 2.54364 15.0524
11.7931 2.54805 15.0515
11.7931 2.55246 15.024
11.7931 2.55687 15.0927
11.7931 2.56127 15.05
11.7931 2.56568 15.0505
11.7931 2.57009 15.0798
11.7931 2.5745 15.0893
11.7931 2.57891 15.0233
11.7931 2.58332 15.0286
11.7931 2.58772 15.033
11.7931 2.59213 15.069
11.7931 2.59654 15.0437
11.7931 2.60095 15.0603
11.7931 2.60536 15.0184
11.7931 2.60977 15.0455
11.7931 2.61417 15.0409
11.7931 2.61858 15.04
11.7931 2.62299 15.0256
11.7931 2.6274 15.0087
11.7931 2.63181 15.0238
11.7931 2.63622 15.0378
11.7931 2.64063 14.9847
11.7931 2.64503 15.0231
11.7931 2.64944 15.0274
11.7931 2.65385 15.0317
11.7931 2.65826 15.0079
11.7931 2.66267 14.9967
11.7931 2.66708 15.0013
11.7931 2.67148 15.0115
11.7931 2.67589 14.9996
11.7931 2.6803 14.9886
11.7931 2.68471 15.0018
11.7931 2.68912 15.0159
11.7931 2.69353 14.9911
11.7931 2.69793 14.9669
11.7931 2.70234 14.9573
11.7931 2.70675 14.9948
11.7931 2.71116 15.001
11.7931 2.71557 14.9926
11.7931 2.71998 14.9966
11.7931 2.72438 15.0057
11.7931 2.72879 14.9896
11.7931 2.7332 14.992
11.7931 2.73761 14.9526
11.7931 2.74202 14.9606
11.7931 2.74643 14.9747
11.7931 2.75083 14.9497
11.7931 2.75524 14.987
11.7931 2.75965 14.9589
11.7931 2.76406 14.9819
11.7931 2.76847 14.9648
11.7931 2.77288 14.981
11.7931 2.77729 14.9748
11.7931 2.78169 14.9794
11.7931 2.7861 14.9863
11.7931 2.79051 14.9729
11.7931 2.79492 14.9603
11.7931 2.79933 14.9611
11.7931 2.80374 14.948
11.7931 2.80814 14.95
11.7931 2.81255 14.9831
11.7931 2.81696 14.9562
11.7931 2.82137 14.9573
11.7931 2.82578 14.9514
11.7931 2.83019 14.9493
11.7931 2.83459 14.9621
11.7931 2.839 14.9112
11.7931 2.84341 14.9225
11.7931 2.84782 14.9158
11.7931 2.85223 14.9315
11.7931 2.85664 14.9377
11.7931 2.86104 14.9499
11.7931 2.86545 14.9551
11.7931 2.86986 14.9439
11.7931 2.87427 14.9516
11.7931 2.87868 14.9708
11.7931 2.88309 14.9228
11.7931 2.8875 14.9304
11.7931 2.8919 14.9321
11.7931 2.89631 14.929
11.7931 2.90072 14.9177
11.7931 2.90513 14.9138
11.7931 2.90954 14.9118
11.7931 2.91395 14.9232
11.7931 2.91835 14.9416
11.7931 2.92276 14.9156
11.7931 2.92717 14.9212
11.7931 2.93158 14.9731
11.7931 2.93599 14.8898
11.7931 2.9404 14.8693
11.7931 2.9448 14.9323
11.7931 2.94921 14.9211
11.7931 2.95362 14.9409
11.7931 2.95803 14.8961
11.7931 2.96244 14.929
11.7931 2.96685 14.9283
11.7931 2.97125 14.9268
11.7931 2.97566 14.9684
11.7931 2.98007 14.9611
11.7931 2.98448 14.888
11.7931 2.98889 14.8827
11.7931 2.9933 14.9447
11.7931 2.9977 14.8744
11.7931 3.00211 14.8722
11.7931 3.00652 14.8531
11.7931 3.01093 14.9089
11.7931 3.01534 14.9125
11.7931 3.01975 14.9068
11.7931 3.02416 14.9003
11.7931 3.02856 14.8771
11.7931 3.03297 14.8919
11.7931 3.03738 14.8926
11.7931 3.04179 14.8895
11.7931 3.0462 14.9035
11.7931 3.05061 14.8681
11.7931 3.05501 14.8911
11.7931 3.05942 14.8936
11.7931 3.06383 14.8863
11.7931 3.06824 14.8747
11.7931 3.07265 14.8463
11.7931 3.07706 14.8492
11.7931 3.08146 14.8493
11.7931 3.08587 14.8473
11.7931 3.09028 14.8442
11.7931 3.09469 14.9101
11.7931 3.0991 14.8765
11.7931 3.10351 14.8535
11.7931 3.10791 14.8377
11.7931 3.11232 14.8495
11.7931 3.11673 14.7952
11.7931 3.12114 14.8226
11.7931 3.12555 14.806
11.7931 3.12996 14.8131
11.7931 3.13436 14.8373
11.7931 3.13877 14.7845
11.7931 3.14318 14.8004
11.7931 3.14759 14.8512
11.7931 3.152 14.8313
11.7931 3.15641 14.8526
11.7931 3.16082 14.809
11.7931 3.16522 14.7995
11.7931 3.16963 14.8568
11.7931 3.17404 14.8712
11.7931 3.17845 14.8288
11.7931 3.18286 14.7609
11.7931 3.18727 14.771
11.7931 3.19167 14.8086
11.7931 3.19608 14.8233
11.7931 3.20049 14.8007
11.7931 3.2049 14.8266
11.7931 3.20931 14.8263
11.7931 3.21372 14.7699
11.7931 3.21812 14.8251
11.7931 3.22253 14.8045
11.7931 3.22694 14.7898
11.7931 3.23135 14.7705
11.7931 3.23576 14.7864
11.7931 3.24017 14.7868
11.7931 3.24457 14.7961
11.7931 3.24898 14.8303
11.7931 3.25339 14.7945
11.7931 3.2578 14.8244
11.7931 3.26221 14.8152
11.7931 3.26662 14.8002
11.7931 3.27102 14.8188
11.7931 3.27543 14.8061
11.7931 3.27984 14.8186
11.7931 3.28425 14.8129
11.7931 3.28866 14.7846
11.7931 3.29307 14.8276
11.7931 3.29748 14.811
11.7931 3.30188 14.7732
11.7931 3.30629 14.7514
11.7931 3.3107 14.8331
11.7931 3.31511 14.7537
11.7931 3.31952 14.8286
11.7931 3.32393 14.8118
11.7931 3.32833 14.7935
11.7931 3.33274 14.7764
11.7931 3.33715 14.8139
11.7931 3.34156 14.801
11.7931 3.34597 14.7808
11.7931 3.35038 14.7909
11.7931 3.35478 14.8005
11.7931 3.35919 14.7334
11.7931 3.3636 14.7086
11.7931 3.36801 14.7312
11.7931 3.37242 14.7545
11.7931 3.37683 14.746
11.7931 3.38123 14.7789
11.7931 3.38564 14.7717
11.7931 3.39005 14.7707
11.7931 3.39446 14.7928
11.7931 3.39887 14.767
11.7931 3.40328 14.7898
11.7931 3.40769 14.7653
11.7931 3.41209 14.7789
11.7931 3.4165 14.7614
11.7931 3.42091 14.7462
11.7931 3.42532 14.8155
11.7931 3.42973 14.7165
11.7931 3.43414 14.7392
11.7931 3.43854 14.8146
11.7931 3.44295 14.7822
11.7931 3.44736 14.7826
11.7931 3.45177 14.8176
11.7931 3.45618 14.7392
11.7931 3.46059 14.6978
11.7931 3.46499 14.7664
11.7931 3.4694 14.7857
11.7931 3.47381 14.7627
11.7931 3.47822 14.7441
11.7931 3.48263 14.8093
11.7931 3.48704 14.8012
11.7931 3.49144 14.7352
11.7931 3.49585 14.7128
11.7931 3.50026 14.7567
11.7931 3.50467 14.7439
11.7931 3.50908 14.7435
11.7931 3.51349 14.742
11.7931 3.51789 14.737
11.7931 3.5223 14.7799
11.7931 3.52671 14.7144
11.7931 3.53112 14.7258
11.7931 3.53553 14.7528
11.7931 3.53994 14.7753
11.7931 3.54434 14.7896
11.7931 3.54875 14.7203
11.7931 3.55316 14.7329
11.7931 3.55757 14.7413
11.7931 3.56198 14.7114
11.7931 3.56639 14.793
11.7931 3.5708 14.7493
11.7931 3.5752 14.7315
11.7931 3.57961 14.6903
11.7931 3.58402 14.752
11.7931 3.58843 14.7201
11.7931 3.59284 14.7551
11.7931 3.59725 14.767
11.7931 3.60165 14.7095
11.7931 3.60606 14.7583
11.7931 3.61047 14.7421
11.7931 3.61488 14.7596
11.7931 3.61929 14.7248
11.7931 3.6237 14.7008
11.7931 3.6281 14.7185
11.7931 3.63251 14.7057
11.7931 3.63692 14.7585
11.7931 3.64133 14.8238
11.7931 3.64574 14.7231
11.7931 3.65015 14.6684
11.7931 3.65455 14.7062
11.7931 3.65896 14.7633
11.7931 3.66337 14.734
11.7931 3.66778 14.7508
11.7931 3.67219 14.7674
11.7931 3.6766 14.7324
11.7931 3.68101 14.7802
11.7931 3.68541 14.712
11.7931 3.68982 14.7293
11.7931 3.69423 14.724
11.7931 3.69864 14.7296
11.7931 3.70305 14.7124
11.7931 3.70746 14.722
11.7931 3.71186 14.7616
11.7931 3.71627 14.7287
11.7931 3.72068 14.7543
11.7931 3.72509 14.7143
11.7931 3.7295 14.7033
11.7931 3.73391 14.7009
11.7931 3.73831 14.6855
11.7931 3.74272 14.7204
11.7931 3.74713 14.7033
11.7931 3.75154 14.7218
11.7931 3.75595 14.7342
11.7931 3.76036 14.8106
11.7931 3.76476 14.7533
11.7931 3.76917 14.8029
11.7931 3.77358 14.7429
11.7931 3.77799 14.6983
11.7931 3.7824 14.7261
11.7931 3.78681 14.7799
11.7931 3.79121 14.6976
11.7931 3.79562 14.7605
11.7931 3.80003 14.792
11.7931 3.80444 14.7323
11.7931 3.80885 14.7027
11.7931 3.81326 14.7416
11.7931 3.81767 14.7734
11.7931 3.82207 14.7476
11.7931 3.82648 14.671
11.7931 3.83089 14.7515
11.7931 3.8353 14.7347
11.7931 3.83971 14.7696
11.7931 3.84412 14.7407
11.7931 3.84852 14.7934
11.7931 3.85293 14.7459
11.7931 3.85734 14.679
11.7931 3.86175 14.6989
11.7931 3.86616 14.7134
11.7931 3.87057 14.7027
11.7931 3.87497 14.6859
11.7931 3.87938 14.7217
11.7931 3.88379 14.6838
11.7931 3.8882 14.6702
11.7931 3.89261 14.7448
11.7931 3.89702 14.759
11.7931 3.90142 14.7164
11.7931 3.90583 14.7274
11.7931 3.91024 14.7368
11.7931 3.91465 14.7419
11.7931 3.91906 14.6951
11.7931 3.92347 14.7298
11.7931 3.92788 14.7851
11.7931 3.93228 14.7714
11.7931 3.93669 14.7278
11.7931 3.9411 14.7018
11.7931 3.94551 14.7235
11.7931 3.94992 14.7769
11.7931 3.95433 14.7212
11.7931 3.95873 14.7412
11.7931 3.96314 14.6769
11.7931 3.96755 14.7015
11.7931 3.97196 14.7129
11.7931 3.97637 14.663
11.7931 3.98078 14.6974
11.7931 3.98518 14.7081
11.7931 3.98959 14.7669
11.7931 3.994 14.7742
11.7931 3.99841 14.753
11.7931 4.00282 14.6984
11.7931 4.00723 14.7538
11.7931 4.01163 14.7028
11.7931 4.01604 14.7243
11.7931 4.02045 14.778
11.7931 4.02486 14.6768
11.7931 4.02927 14.679
11.7931 4.03368 14.7168
11.7931 4.03808 14.7057
11.7931 4.04249 14.6992
11.7931 4.0469 14.7022
11.7931 4.05131 14.7115
11.7931 4.05572 14.7238
11.7931 4.06013 14.6846
11.7931 4.06454 14.6645
11.7931 4.06894 14.7186
11.7931 4.07335 14.7223
11.7931 4.07776 14.632
11.7931 4.08217 14.669
11.7931 4.08658 14.656
11.7931 4.09099 14.7254
11.7931 4.09539 14.701
11.7931 4.0998 14.6419
11.7931 4.10421 14.7374
11.7931 4.10862 14.6911
11.7931 4.11303 14.6663
11.7931 4.11744 14.697
11.7931 4.12184 14.7074
11.7931 4.12625 14.6668
11.7931 4.13066 14.6447
11.7931 4.13507 14.7563
11.7931 4.13948 14.7545
11.7931 4.14389 14.6719
11.7931 4.14829 14.6885
11.7931 4.1527 14.7207
11.7931 4.15711 14.7129
11.7931 4.16152 14.6472
11.7931 4.16593 14.644
11.7931 4.17034 14.6425
11.7931 4.17474 14.7113
11.7931 4.17915 14.7092
11.7931 4.18356 14.6806
11.7931 4.18797 14.7126
11.7931 4.19238 14.6831
11.7931 4.19679 14.7377
11.7931 4.20119 14.6706
11.7931 4.2056 14.6449
11.7931 4.21001 14.6854
11.7931 4.21442 14.6725
11.7931 4.21883 14.6375
11.7931 4.22324 14.6659
11.7931 4.22765 14.7256
11.7931 4.23205 14.7106
11.7931 4.23646 14.7204
11.7931 4.24087 14.6929
11.7931 4.24528 14.7271
11.7931 4.24969 14.6918
11.7931 4.2541 14.693
11.7931 4.2585 14.6879
11.7931 4.26291 14.6369
11.7931 4.26732 14.6631
11.7931 4.27173 14.677
11.7931 4.27614 14.6681
11.7931 4.28055 14.6366
11.7931 4.28495 14.6453
11.7931 4.28936 14.7068
11.7931 4.29377 14.7195
11.7931 4.29818 14.672
11.7931 4.30259 14.6969
11.7931 4.307 14.5883
11.7931 4.3114 14.6548
11.7931 4.31581 14.7003
11.7931 4.32022 14.7113
11.7931 4.32463 14.6833
11.7931 4.32904 14.5822
11.7931 4.33345 14.7003
11.7931 4.33785 14.7329
11.7931 4.34226 14.6402
11.7931 4.34667 14.6364
11.7931 4.35108 14.6404
11.7931 4.35549 14.5975
11.7931 4.3599 14.6257
11.7931 4.36431 14.5725
11.7931 4.36871 14.6707
11.7931 4.37312 14.6076
11.7931 4.37753 14.6368
11.7931 4.38194 14.5951
11.7931 4.38635 14.5526
11.7931 4.39076 14.6136
11.7931 4.39516 14.7055
11.7931 4.39957 14.6586
11.7931 4.40398 14.5725
11.7931 4.40839 14.6626
11.7931 4.4128 14.6783
11.7931 4.41721 14.6418
11.7931 4.42161 14.7286
11.7931 4.42602 14.6398
11.7931 4.43043 14.6448
11.7931 4.43484 14.6795
11.7931 4.43925 14.6746
11.7931 4.44366 14.7227
11.7931 4.44806 14.6344
11.7931 4.45247 14.6229
11.7931 4.45688 14.6384
11.7931 4.46129 14.6455
11.7931 4.4657 14.5896
11.7931 4.47011 14.6514
11.7931 4.47451 14.5837
11.7931 4.47892 14.5433
11.7931 4.48333 14.5931
11.7931 4.48774 14.5907
11.7931 4.49215 14.6714
11.7931 4.49656 14.6824
11.7931 4.50097 14.6246
11.7931 4.50537 14.5854
11.7931 4.50978 14.6454
11.7931 4.51419 14.5393
11.7931 4.5186 14.6044
11.7931 4.52301 14.5787
11.7931 4.52742 14.7001
11.7931 4.53182 14.5815
11.7931 4.53623 14.696
11.7931 4.54064 14.6684
11.7931 4.54505 14.6095
11.7931 4.54946 14.6026
11.7931 4.55387 14.59
11.7931 4.55827 14.4763
11.7931 4.56268 14.626
11.7931 4.56709 14.6675
11.7931 4.5715 14.5326
11.7931 4.57591 14.531
11.7931 4.58032 14.5892
11.7931 4.58472 14.6236
11.7931 4.58913 14.5838
11.7931 4.59354 14.5812
11.7931 4.59795 14.5573
11.7931 4.60236 14.6638
11.7931 4.60677 14.6994
11.7931 4.61118 14.5934
11.7931 4.61558 14.5434
11.7931 4.61999 14.6323
11.7931 4.6244 14.6049
11.7931 4.62881 14.5719
11.7931 4.63322 14.6686
11.7931 4.63763 14.5674
11.7931 4.64203 14.6079
11.7931 4.64644 14.6303
11.7931 4.65085 14.64
11.7931 4.65526 14.6813
11.7931 4.65967 14.5588
11.7931 4.66408 14.574
11.7931 4.66848 14.5528
11.7931 4.67289 14.6303
11.7931 4.6773 14.5974
11.7931 4.68171 14.5535
11.7931 4.68612 14.6783
11.7931 4.69053 14.5622
11.7931 4.69493 14.5823
11.7931 4.69934 14.4973
11.7931 4.70375 14.6004
11.7931 4.70816 14.4945
11.7931 4.71257 14.6358
11.7931 4.71698 14.6434
11.7931 4.72139 14.5851
11.7931 4.72579 14.7337
11.7931 4.7302 14.6828
11.7931 4.73461 14.5661
11.7931 4.73902 14.5791
11.7931 4.74343 14.5907
11.7931 4.74784 14.5975
11.7931 4.75224 14.5908
11.7931 4.75665 14.6335
11.7931 4.76106 14.5621
11.7931 4.76547 14.6073
11.7931 4.76988 14.5945
11.7931 4.77429 14.5433
11.7931 4.77869 14.5517
11.7931 4.7831 14.6551
11.7931 4.78751 14.5681
11.7931 4.79192 14.5442
11.7931 4.79633 14.5564
11.7931 4.80074 14.6389
11.7931 4.80514 14.5084
11.7931 4.80955 14.6086
11.7931 4.81396 14.6621
11.7931 4.81837 14.5112
11.7931 4.82278 14.4798
11.7931 4.82719 14.6196
11.7931 4.83159 14.503
11.7931 4.836 14.5253
11.7931 4.84041 14.5786
11.7931 4.84482 14.6737
11.7931 4.84923 14.6226
11.7931 4.85364 14.6032
11.7931 4.85805 14.5936
11.7931 4.86245 14.45
11.7931 4.86686 14.5921
11.7931 4.87127 14.6415
11.7931 4.87568 14.5551
11.7931 4.88009 14.5556
11.7931 4.8845 14.522
11.7931 4.8889 14.5538
11.7931 4.89331 14.6258
11.7931 4.89772 14.6388
11.7931 4.90213 14.5975
11.7931 4.90654 14.5268
11.7931 4.91095 14.5174
11.7931 4.91535 14.6509
11.7931 4.91976 14.6539
11.7931 4.92417 14.5961
11.7931 4.92858 14.4931
11.7931 4.93299 14.5891
11.7931 4.9374 14.6374
11.7931 4.9418 14.6329
11.7931 4.94621 14.627
11.7931 4.95062 14.515
11.7931 4.95503 14.6203
11.7931 4.95944 14.5427
11.7931 4.96385 14.4659
11.7931 4.96826 14.4842
11.7931 4.97266 14.5296
11.7931 4.97707 14.745
11.7931 4.98148 14.5913
11.7931 4.98589 14.6607
11.7931 4.9903 14.6638
11.7931 4.99471 14.5721
11.7931 4.99911 14.593
11.7931 5.00352 14.6201
11.7931 5.00793 14.5309
11.7931 5.01234 14.5915
11.7931 5.01675 14.6028
11.7931 5.02116 14.5547
11.7931 5.02556 14.6575
11.7931 5.02997 14.5251
11.7931 5.03438 14.5254
11.7931 5.03879 14.4382
11.7931 5.0432 14.5318
11.7931 5.04761 14.6403
11.7931 5.05201 14.5368
11.7931 5.05642 14.6504
11.7931 5.06083 14.6664
11.7931 5.06524 14.6016
11.7931 5.06965 14.7419
11.7931 5.07406 14.6187
11.7931 5.07846 14.5831
11.7931 5.08287 14.6085
11.7931 5.08728 14.4982
11.7931 5.09169 14.6551
11.7931 5.0961 14.5305
11.7931 5.10051 14.5544
11.7931 5.10492 14.6655
11.7931 5.10932 14.5867
11.7931 5.11373 14.5983
11.7931 5.11814 14.5987
11.7931 5.12255 14.5453
11.7931 5.12696 14.5964
11.7931 5.13137 14.7069
11.7931 5.13577 14.6657
11.7931 5.14018 14.6554
11.7931 5.14459 14.6174
11.7931 5.149 14.6205
11.7931 5.15341 14.4735
11.7931 5.15782 14.5884
11.7931 5.16222 14.6087
11.7931 5.16663 14.5933
11.7931 5.17104 14.4116
11.7931 5.17545 14.5139
11.7931 5.17986 14.5616
11.7931 5.18427 14.4658
11.7931 5.18867 14.5605
11.7931 5.19308 14.586
11.7931 5.19749 14.6531
11.7931 5.2019 14.4873
11.7931 5.20631 14.4287
11.7931 5.21072 14.518
11.7931 5.21512 14.6018
11.7931 5.21953 14.6251
11.7931 5.22394 14.5964
11.7931 5.22835 14.5436
11.7931 5.23276 14.5453
11.7931 5.23717 14.5881
11.7931 5.24157 14.4644
11.7931 5.24598 14.5204
11.7931 5.25039 14.4593
11.7931 5.2548 14.6125
11.7931 5.25921 14.5302
11.7931 5.26362 14.4945
11.7931 5.26803 14.6058
11.7931 5.27243 14.524
11.7931 5.27684 14.5543
11.7931 5.28125 14.5322
11.7931 5.28566 14.5128
11.7931 5.29007 14.6332
11.7931 5.29448 14.5499
11.7931 5.29888 14.4844
11.7931 5.30329 14.5798
11.7931 5.3077 14.423
11.7931 5.31211 14.369
11.7931 5.31652 14.6241
11.7931 5.32093 14.4512
11.7931 5.32533 14.4133
11.7931 5.32974 14.5011
11.7931 5.33415 14.3323
11.7931 5.33856 14.5441
11.7931 5.34297 14.4327
11.7931 5.34738 14.4541
11.7931 5.35178 14.5458
11.7931 5.35619 14.6682
11.7931 5.3606 14.5684
11.7931 5.36501 14.487
11.7931 5.36942 14.4955
11.7931 5.37383 14.5409
11.7931 5.37823 14.5326
11.7931 5.38264 14.5158
11.7931 5.38705 14.4759
11.7931 5.39146 14.5375
11.7931 5.39587 14.4863
11.7931 5.40028 14.5121
11.7931 5.40469 14.5172
11.7931 5.40909 14.4278
11.7931 5.4135 14.5606
11.7931 5.41791 14.3694
11.7931 5.42232 14.5237
11.7931 5.42673 14.5321
11.7931 5.43114 14.5405
11.7931 5.43554 14.5009
11.7931 5.43995 14.5251
11.7931 5.44436 14.5752
11.7931 5.44877 14.5703
11.7931 5.45318 14.3603
11.7931 5.45759 14.4531
11.7931 5.46199 14.5071
11.7931 5.4664 14.5399
11.7931 5.47081 14.4979
11.7931 5.47522 14.6296
11.7931 5.47963 14.45
11.7931 5.48404 14.5463
11.7931 5.48844 14.5097
11.7931 5.49285 14.4146
11.7931 5.49726 14.4489
11.7931 5.50167 14.4748
11.7931 5.50608 14.4928
11.7931 5.51049 14.4499
11.7931 5.51489 14.5264
11.7931 5.5193 14.5894
11.7931 5.52371 14.4141
11.7931 5.52812 14.3712
11.7931 5.53253 14.5024
11.7931 5.53694 14.4708
11.7931 5.54135 14.491
11.7931 5.54575 14.6537
11.7931 5.55016 14.6251
11.7931 5.55457 14.5049
11.7931 5.55898 14.4288
11.7931 5.56339 14.5439
11.7931 5.5678 14.4359
11.7931 5.5722 14.66
11.7931 5.57661 14.5146
11.7931 5.58102 14.4658
11.7931 5.58543 14.5982
11.7931 5.58984 14.5516
11.7931 5.59425 14.4744
11.7931 5.59865 14.5042
11.7931 5.60306 14.4206
11.7931 5.60747 14.5874
11.7931 5.61188 14.6076
11.7931 5.61629 14.5575
11.7931 5.6207 14.6663
11.7931 5.6251 14.4777
11.7931 5.62951 14.3761
11.7931 5.63392 14.5691
11.7931 5.63833 14.4551
11.7931 5.64274 14.4763
11.7931 5.64715 14.4302
11.7931 5.65156 14.5504
11.7931 5.65596 14.5001
11.7931 5.66037 14.5749
11.7931 5.66478 14.5587
11.7931 5.66919 14.4798
11.7931 5.6736 14.5082
11.7931 5.67801 14.5323
11.7931 5.68241 14.5018
11.7931 5.68682 14.5682
11.7931 5.69123 14.5182
11.7931 5.69564 14.3425
11.7931 5.70005 14.4325
11.7931 5.70446 14.409
11.7931 5.70886 14.5651
11.7931 5.71327 14.4309
11.7931 5.71768 14.4325
11.7931 5.72209 14.51
11.7931 5.7265 14.5019
11.7931 5.73091 14.4975
11.7931 5.73531 14.4893
11.7931 5.73972 14.4443
11.7931 5.74413 14.4884
11.7931 5.74854 14.4201
11.7931 5.75295 14.453
11.7931 5.75736 14.4338
11.7931 5.76176 14.2735
11.7931 5.76617 14.4262
11.7931 5.77058 14.3976
11.7931 5.77499 14.3543
11.7931 5.7794 14.4986
11.7931 5.78381 14.5041
11.7931 5.78822 14.4058
11.7931 5.79262 14.5554
11.7931 5.79703 14.5166
11.7931 5.80144 14.395
11.7931 5.80585 14.4651
11.7931 5.81026 14.4002
11.7931 5.81467 14.4451
11.7931 5.81907 14.3369
11.7931 5.82348 14.3664
11.7931 5.82789 14.3816
11.7931 5.8323 14.4887
11.7931 5.83671 14.3068
11.7931 5.84112 14.377
11.7931 5.84552 14.3877
11.7931 5.84993 14.4005
11.7931 5.85434 14.5144
11.7931 5.85875 14.5139
11.7931 5.86316 14.2935
11.7931 5.86757 14.4547
11.7931 5.87197 14.3139
11.7931 5.87638 14.5339
11.7931 5.88079 14.3721
11.7931 5.8852 14.4214
11.7931 5.88961 14.4896
11.7931 5.89402 14.3789
11.7931 5.89842 14.4947
11.7931 5.90283 14.3268
11.7931 5.90724 14.5679
11.7931 5.91165 14.3779
11.7931 5.91606 14.2599
11.7931 5.92047 14.3667
11.7931 5.92488 14.2224
11.7931 5.92928 14.2511
11.7931 5.93369 14.5004
11.7931 5.9381 14.5327
11.7931 5.94251 14.3525
11.7931 5.94692 14.4489
11.7931 5.95133 14.3258
11.7931 5.95573 14.1993
11.7931 5.96014 14.248
11.7931 5.96455 14.3377
11.7931 5.96896 14.4317
11.7931 5.97337 14.5486
11.7931 5.97778 14.4369
11.7931 5.98218 14.4608
11.7931 5.98659 14.4422
11.7931 5.991 14.1434
11.7931 5.99541 14.5273
11.7931 5.99982 14.5412
11.7931 6.00423 14.5198
11.7931 6.00863 14.3425
11.7931 6.01304 14.4577
11.7931 6.01745 14.4592
11.7931 6.02186 14.4171
11.7931 6.02627 14.4139
11.7931 6.03068 14.2578
11.7931 6.03508 14.3858
11.7931 6.03949 14.3426
11.7931 6.0439 14.3863
11.7931 6.04831 14.2272
11.7931 6.05272 14.3794
11.7931 6.05713 14.452
11.7931 6.06154 14.5133
11.7931 6.06594 14.4341
11.7931 6.07035 14.4308
11.7931 6.07476 14.3619
11.7931 6.07917 14.3658
11.7931 6.08358 14.4922
11.7931 6.08799 14.4621
11.7931 6.09239 14.308
11.7931 6.0968 14.3716
11.7931 6.10121 14.4596
11.7931 6.10562 14.2825
11.7931 6.11003 14.4739
11.7931 6.11444 14.5478
11.7931 6.11884 14.4676
11.7931 6.12325 14.2519
11.7931 6.12766 14.3589
11.7931 6.13207 14.3756
11.7931 6.13648 14.1883
11.7931 6.14089 14.4254
11.7931 6.1453 14.6094
11.7931 6.1497 14.3294
11.7931 6.15411 14.4249
11.7931 6.15852 14.3943
11.7931 6.16293 14.5572
11.7931 6.16734 14.4994
11.7931 6.17175 14.3472
11.7931 6.17615 14.1381
11.7931 6.18056 14.4877
11.7931 6.18497 14.4541
11.7931 6.18938 14.3917
11.7931 6.19379 14.3029
11.7931 6.1982 14.444
11.7931 6.2026 14.4035
11.7931 6.20701 14.4049
11.7931 6.21142 14.4263
11.7931 6.21583 14.4852
11.7931 6.22024 14.4749
11.7931 6.22465 14.3156
11.7931 6.22905 14.5439
11.7931 6.23346 14.4886
11.7931 6.23787 14.2512
11.7931 6.24228 14.3513
11.7931 6.24669 14.4401
11.7931 6.2511 14.378
11.7931 6.2555 14.3898
11.7931 6.25991 14.296
11.7931 6.26432 14.2655
11.7931 6.26873 14.4347
11.7931 6.27314 14.3476
11.7931 6.27755 14.3463
11.7931 6.28195 14.3059
11.7931 6.28636 14.368
11.7931 6.29077 14.2591
11.7931 6.29518 14.3492
11.7931 6.29959 14.4142
11.7931 6.304 14.473
11.7931 6.30841 14.484
11.7931 6.31281 14.3548
11.7931 6.31722 14.4451
11.7931 6.32163 14.4186
11.7931 6.32604 14.4702
11.7931 6.33045 14.2657
11.7931 6.33486 14.4557
11.7931 6.33926 14.3713
11.7931 6.34367 14.2907
11.7931 6.34808 14.518
11.7931 6.35249 14.4663
11.7931 6.3569 14.289
11.7931 6.36131 14.3339
11.7931 6.36571 14.3796
11.7931 6.37012 14.3507
11.7931 6.37453 14.5333
11.7931 6.37894 14.523
11.7931 6.38335 14.3521
11.7931 6.38776 14.3393
11.7931 6.39216 14.2515
11.7931 6.39657 14.4651
11.7931 6.40098 14.3743
11.7931 6.40539 14.5193
11.7931 6.4098 14.2846
11.7931 6.41421 14.3921
11.7931 6.41861 14.5042
11.7931 6.42302 14.4191
11.7931 6.42743 14.3574
11.7931 6.43184 14.4558
11.7931 6.43625 14.6504
11.7931 6.44066 14.2881
11.7931 6.44507 14.1526
11.7931 6.44947 14.4457
11.7931 6.45388 14.3281
11.7931 6.45829 14.3976
11.7931 6.4627 14.3367
11.7931 6.46711 14.2559
11.7931 6.47152 14.2348
11.7931 6.47592 14.3111
11.7931 6.48033 14.2113
11.7931 6.48474 14.2956
11.7931 6.48915 14.3989
11.7931 6.49356 14.5586
11.7931 6.49797 14.137
11.7931 6.50237 14.3805
11.7931 6.50678 14.4043
11.7931 6.51119 14.2141
11.7931 6.5156 14.3818
11.7931 6.52001 14.5133
11.7931 6.52442 14.2893
11.7931 6.52882 14.4027
11.7931 6.53323 14.5918
11.7931 6.53764 14.2902
11.7931 6.54205 14.1101
11.7931 6.54646 14.4518
11.7931 6.55087 14.2559
11.7931 6.55527 14.4625
11.7931 6.55968 14.3752
11.7931 6.56409 14.2236
11.7931 6.5685 14.3574
11.7931 6.57291 14.405
11.7931 6.57732 14.2037
11.7931 6.58173 14.2974
11.7931 6.58613 14.3081
11.7931 6.59054 14.3157
11.7931 6.59495 14.551
11.7931 6.59936 14.4598
11.7931 6.60377 14.4199
11.7931 6.60818 14.3957
11.7931 6.61258 14.2583
11.7931 6.61699 14.3049
11.7931 6.6214 14.3616
11.7931 6.62581 14.3139
11.7931 6.63022 14.4584
11.7931 6.63463 14.3413
11.7931 6.63903 14.3905
11.7931 6.64344 14.284
11.7931 6.64785 14.6079
11.7931 6.65226 14.5308
11.7931 6.65667 14.3073
11.7931 6.66108 14.4758
11.7931 6.66548 14.413
11.7931 6.66989 14.2789
11.7931 6.6743 14.3409
11.7931 6.67871 14.5738
11.7931 6.68312 14.4269
11.7931 6.68753 14.3904
11.7931 6.69194 14.2755
11.7931 6.69634 14.1642
11.7931 6.70075 14.0636
11.7931 6.70516 14.3897
11.7931 6.70957 14.493
11.7931 6.71398 14.2821
11.7931 6.71839 14.2392
11.7931 6.72279 14.5671
11.7931 6.7272 14.1393
11.7931 6.73161 14.1858
11.7931 6.73602 14.0405
11.7931 6.74043 14.4325
11.7931 6.74484 14.5353
11.7931 6.74924 14.4264
11.7931 6.75365 14.3299
11.7931 6.75806 14.1751
11.7931 6.76247 14.3515
11.7931 6.76688 14.2109
11.7931 6.77129 14.4153
11.7931 6.77569 14.4714
11.7931 6.7801 14.2434
11.7931 6.78451 14.3737
11.7931 6.78892 14.267
11.7931 6.79333 14.3855
11.7931 6.79774 14.0882
11.7931 6.80214 14.4094
11.7931 6.80655 14.5109
11.7931 6.81096 14.5495
11.7931 6.81537 14.44
11.7931 6.81978 14.3033
11.7931 6.82419 14.4629
11.7931 6.8286 14.6568
11.7931 6.833 14.2231
11.7931 6.83741 14.3052
11.7931 6.84182 14.2756
11.7931 6.84623 14.2085
11.7931 6.85064 14.2988
11.7931 6.85505 14.244
11.7931 6.85945 14.3349
11.7931 6.86386 14.3686
11.7931 6.86827 14.2551
11.7931 6.87268 14.368
11.7931 6.87709 14.545
11.7931 6.8815 14.4995
11.7931 6.8859 14.4218
11.7931 6.89031 14.1716
11.7931 6.89472 14.4182
11.7931 6.89913 14.5324
11.7931 6.90354 14.4569
11.7931 6.90795 14.3878
11.7931 6.91235 13.9842
11.7931 6.91676 14.2763
11.7931 6.92117 14.2917
11.7931 6.92558 14.5067
11.7931 6.92999 14.4879
11.7931 6.9344 14.4389
11.7931 6.9388 14.4492
11.7931 6.94321 14.3392
11.7931 6.94762 14.26
11.7931 6.95203 14.2012
11.7931 6.95644 14.1219
11.7931 6.96085 14.1881
11.7931 6.96526 14.2089
11.7931 6.96966 14.449
11.7931 6.97407 14.3139
11.7931 6.97848 14.3889
11.7931 6.98289 14.3506
11.7931 6.9873 14.2113
11.7931 6.99171 14.2579
11.7931 6.99611 14.2061
11.7931 7.00052 14.0605
11.7931 7.00493 14.1103
11.7931 7.00934 14.3344
11.7931 7.01375 14.3287
11.7931 7.01816 14.2655
11.7931 7.02256 14.4112
11.7931 7.02697 14.4377
11.7931 7.03138 14.3645
11.7931 7.03579 14.3245
11.7931 7.0402 14.367
11.7931 7.04461 14.4643
11.7931 7.04901 14.2669
11.7931 7.05342 14.0801
11.7931 7.05783 14.4212
11.7931 7.06224 14.1891
11.7931 7.06665 14.1823
11.7931 7.07106 14.1291
11.7931 7.07546 14.2891
11.7931 7.07987 14.0129
11.7931 7.08428 14.1625
11.7931 7.08869 14.1079
11.7931 7.0931 14.2452
11.7931 7.09751 14.4482
11.7931 7.10191 14.1758
11.7931 7.10632 14.0008
11.7931 7.11073 13.8702
11.7931 7.11514 14.1109
11.7931 7.11955 14.0527
11.7931 7.12396 14.273
11.7931 7.12837 14.3294
11.7931 7.13277 14.5514
11.7931 7.13718 14.3943
11.7931 7.14159 14.3473
11.7931 7.146 14.1284
11.7931 7.15041 14.214
11.7931 7.15482 14.0951
11.7931 7.15922 14.6037
11.7931 7.16363 14.3357
11.7931 7.16804 14.1649
11.7931 7.17245 14.2636
11.7931 7.17686 14.5107
11.7931 7.18127 14.16
11.7931 7.18567 14.3702
11.7931 7.19008 14.3538
11.7931 7.19449 14.3796
11.7931 7.1989 14.3877
11.7931 7.20331 14.3395
11.7931 7.20772 14.3114
11.7931 7.21212 14.2066
11.7931 7.21653 13.8711
11.7931 7.22094 14.4984
11.7931 7.22535 14.4053
11.7931 7.22976 14.3789
11.7931 7.23417 14.2769
11.7931 7.23857 14.2584
11.7931 7.24298 14.2151
11.7931 7.24739 14.2649
11.7931 7.2518 14.1082
11.7931 7.25621 14.1457
11.7931 7.26062 14.169
11.7931 7.26503 13.9299
11.7931 7.26943 14.247
11.7931 7.27384 14.1235
11.7931 7.27825 14.3196
11.7931 7.28266 14.4313
11.7931 7.28707 14.0802
11.7931 7.29148 14.499
11.7931 7.29588 14.3357
11.7931 7.30029 14.2226
11.7931 7.3047 14.1456
11.7931 7.30911 14.2208
11.7931 7.31352 14.3255
11.7931 7.31793 14.1124
11.7931 7.32233 14.2894
11.7931 7.32674 14.4831
11.7931 7.33115 14.1253
11.7931 7.33556 14.1982
11.7931 7.33997 14.2902
11.7931 7.34438 14.3377
11.7931 7.34878 14.3613
11.7931 7.35319 14.4506
11.7931 7.3576 14.1091
11.7931 7.36201 14.231
11.7931 7.36642 14.0272
11.7931 7.37083 14.0387
11.7931 7.37524 14.2513
11.7931 7.37964 14.1339
11.7931 7.38405 14.2578
11.7931 7.38846 14.1818
11.7931 7.39287 14.2766
11.7931 7.39728 14.2531
11.7931 7.40169 14.1674
11.7931 7.40609 14.1822
11.7931 7.4105 14.5058
11.7931 7.41491 14.1573
11.7931 7.41932 14.1492
11.7931 7.42373 14.1869
11.7931 7.42814 14.3298
11.7931 7.43254 14.1004
11.7931 7.43695 14.3283
11.7931 7.44136 14.0212
11.7931 7.44577 14.099
11.7931 7.45018 14.4355
11.7931 7.45459 14.2173
11.7931 7.45899 14.2656
11.7931 7.4634 14.1749
11.7931 7.46781 14.2721
11.7931 7.47222 14.2857
11.7931 7.47663 14.2189
11.7931 7.48104 14.5937
11.7931 7.48545 14.0948
11.7931 7.48985 14.1447
11.7931 7.49426 14.0193
11.7931 7.49867 14.0628
11.7931 7.50308 14.4175
11.7931 7.50749 14.2359
11.7931 7.5119 14.174
11.7931 7.5163 14.3572
11.7931 7.52071 14.4185
11.7931 7.52512 14.4413
11.7931 7.52953 13.8128
11.7931 7.53394 14.3999
11.7931 7.53835 13.9756
11.7931 7.54275 14.1869
11.7931 7.54716 14.2974
11.7931 7.55157 14.3311
11.7931 7.55598 14.1811
11.7931 7.56039 14.3415
11.7931 7.5648 14.3225
11.7931 7.5692 14.2609
11.7931 7.57361 14.2707
11.7931 7.57802 14.2236
11.7931 7.58243 14.2382
11.7931 7.58684 14.3524
11.7931 7.59125 14.181
11.7931 7.59565 14.2635
11.7931 7.60006 14.0256
11.7931 7.60447 14.333
11.7931 7.60888 14.1225
11.7931 7.61329 14.2329
11.7931 7.6177 14.3118
11.7931 7.62211 13.678
11.7931 7.62651 14.2542
11.7931 7.63092 14.1772
11.7931 7.63533 14.2955
11.7931 7.63974 14.1
11.7931 7.64415 14.1949
11.7931 7.64856 14.2194
11.7931 7.65296 14.2251
11.7931 7.65737 14.4903
11.7931 7.66178 14.1612
11.7931 7.66619 14.2101
11.7931 7.6706 14.0766
11.7931 7.67501 13.9767
11.7931 7.67941 14.4079
11.7931 7.68382 14.3896
11.7931 7.68823 14.0918
11.7931 7.69264 14.1838
11.7931 7.69705 14.1405
11.7931 7.70146 13.9414
11.7931 7.70586 14.3138
11.7931 7.71027 14.4005
11.7931 7.71468 14.3495
11.7931 7.71909 14.1361
11.7931 7.7235 14.1114
11.7931 7.72791 13.9964
11.7931 7.73232 14.1597
11.7931 7.73672 14.415
11.7931 7.74113 14.2526
11.7931 7.74554 14.4847
11.7931 7.74995 14.0423
11.7931 7.75436 14.3006
11.7931 7.75877 14.3568
11.7931 7.76317 13.7147
11.7931 7.76758 14.4794
11.7931 7.77199 14.1029
11.7931 7.7764 14.2753
11.7931 7.78081 14.1571
11.7931 7.78522 14.3677
11.7931 7.78962 14.5104
11.7931 7.79403 14.3944
11.7931 7.79844 14.2255
11.7931 7.80285 14.0727
11.7931 7.80726 14.0571
11.7931 7.81167 13.8592
11.7931 7.81607 14.0365
11.7931 7.82048 14.11
11.7931 7.82489 14.3487
11.7931 7.8293 14.2843
11.7931 7.83371 14.0694
11.7931 7.83812 14.1037
11.7931 7.84252 14.3574
11.7931 7.84693 14.4587
11.7931 7.85134 14.1285
11.7931 7.85575 14.2209
11.7931 7.86016 14.2785
11.7931 7.86457 14.4401
11.7931 7.86898 13.972
11.7931 7.87338 14.1958
11.7931 7.87779 14.5918
11.7931 7.8822 14.3843
11.7931 7.88661 14.0885
11.7931 7.89102 13.8082
11.7931 7.89543 14.2875
11.7931 7.89983 14.2977
11.7931 7.90424 14.1835
11.7931 7.90865 14.2862
11.7931 7.91306 14.2306
11.7931 7.91747 14.217
11.7931 7.92188 13.8941
11.7931 7.92628 14.3531
11.7931 7.93069 14.3671
11.7931 7.9351 14.0668
11.7931 7.93951 13.9321
11.7931 7.94392 13.9464
11.7931 7.94833 13.8002
11.7931 7.95273 14.3597
11.7931 7.95714 14.1119
11.7931 7.96155 13.8036
11.7931 7.96596 14.0273
11.7931 7.97037 14.0984
11.7931 7.97478 14.1051
11.7931 7.97918 14.2325
11.7931 7.98359 14.2287
11.7931 7.988 14.1577
11.7931 7.99241 14.0279
11.7931 7.99682 14.2017
11.7931 8.00123 14.1448
11.7931 8.00564 14.2683
11.7931 8.01004 14.3741
11.7931 8.01445 14.0633
11.7931 8.01886 14.2123
11.7931 8.02327 14.2534
11.7931 8.02768 13.9069
11.7931 8.03209 14.1251
11.7931 8.03649 13.8739
11.7931 8.0409 14.3422
11.7931 8.04531 13.9718
11.7931 8.04972 14.2501
11.7931 8.05413 13.9408
11.7931 8.05854 14.4202
11.7931 8.06294 14.1045
11.7931 8.06735 14.0526
11.7931 8.07176 14.0657
11.7931 8.07617 14.3731
11.7931 8.08058 14.4381
11.7931 8.08499 14.3118
11.7931 8.08939 14.0937
11.7931 8.0938 14.2207
11.7931 8.09821 14.2422
11.7931 8.10262 14.1536
11.7931 8.10703 14.2084
11.7931 8.11144 14.2454
11.7931 8.11584 13.9425
